# .PCD v0.7 - Point Cloud Data file format
VERSION 0.7
FIELDS x y z rgba
SIZE 4 4 4 4
TYPE F F F U
COUNT 1 1 1 1
WIDTH 1428
HEIGHT 1
VIEWPOINT 0 0 0 1 0 0 0
POINTS 1428
DATA ascii
0.36899999 0.27700001 -0 24407668
0.368 0.27700001 -0 24341624
0.36700001 0.27700001 -0 24208762
0.366 0.27700001 -0 24934012
0.35100001 0.27700001 -1.0779999 24474490
0.34999999 0.27700001 -1.0779999 24211830
0.331 0.27700001 -1.105 25000036
0.33000001 0.27700001 -1.105 24932690
0.29899999 0.27700001 -1.131 26117775
0.29800001 0.27700001 -1.131 25856918
0.29699999 0.27700001 -1.1339999 25595533
0.296 0.27700001 -1.1339999 25396868
0.29300001 0.27700001 -1.142 24473720
0.292 0.27700001 -1.142 24868460
0.29100001 0.27700001 -1.142 25262199
0.27500001 0.27700001 -1.1569999 24872572
0.27399999 0.27700001 -1.1569999 25595002
0.273 0.27700001 -1.169 26384268
0.27200001 0.27700001 -1.169 26052766
0.25299999 0.27700001 -1.1849999 24805003
0.252 0.27700001 -1.1849999 25068437
0.237 0.27700001 -0 25791591
0.236 0.27700001 -0 24145766
0.235 0.27700001 -0 22496109
0.234 0.27700001 -0 22108275
0.233 0.27700001 -0 21653357
0.23199999 0.27700001 -0 23554150
0.22499999 0.27700001 -0 25921164
0.22400001 0.27700001 -0 25594014
0.223 0.27700001 -1.227 25265798
0.20299999 0.27700001 -1.263 25198204
0.20200001 0.27700001 -1.263 25526653
0.20100001 0.27700001 -1.268 25789048
0.2 0.27700001 -1.268 24866162
0.19 0.27700001 -1.2819999 24866674
0.189 0.27700001 -1.2869999 24407656
0.18799999 0.27700001 -1.2869999 25196637
0.18700001 0.27700001 -4.0929999 26047851
0.186 0.27700001 -4.0929999 24799609
0.185 0.27700001 -4.0929999 23615349
0.177 0.27700001 -4.1420002 24274027
0.176 0.27700001 -4.1420002 24146551
0.175 0.27700001 -4.1420002 24079990
0.17399999 0.27700001 -4.1420002 24800885
-0.018999999 0.27700001 -1.068 31646948
-0.02 0.27700001 -1.068 31712236
-0.021 0.27700001 -0 31842029
-0.022 0.27700001 -0 30530029
-0.023 0.27700001 -0 29285857
-0.024 0.27700001 -0 28363733
-0.025 0.27700001 -0 27445456
-0.026000001 0.27700001 -0 25928394
-0.027000001 0.27700001 -0 24418260
-0.028000001 0.27700001 -0 23361501
-0.028999999 0.27700001 -0 22310097
-0.029999999 0.27700001 -0 21055172
-0.030999999 0.27700001 -0 19793837
-0.032000002 0.27700001 -0 18355350
-0.183 0.27700001 -0 21301880
-0.184 0.27700001 -0 20713842
-0.192 0.27700001 -0.52999997 20918868
-0.63999999 0.27700001 -0 28947907
0.36899999 0.27599999 -0 24473966
0.368 0.27599999 -0 24017261
0.36700001 0.27599999 -0 23556468
0.366 0.27599999 -0 24735355
0.36500001 0.27599999 -1.0880001 25852798
0.33500001 0.27599999 -0 25131898
0.31299999 0.27599999 -1.12 25066369
0.31200001 0.27599999 -1.12 25133951
0.31099999 0.27599999 -1.123 25131892
0.31 0.27599999 -1.123 25262954
0.30700001 0.27599999 -1.12 24411016
0.30599999 0.27599999 -1.12 25263248
0.30500001 0.27599999 -1.12 26115724
0.30399999 0.27599999 -1.12 26116488
0.29899999 0.27599999 -1.131 25588618
0.29800001 0.27599999 -1.131 25595276
0.29699999 0.27599999 -1.1339999 25593735
0.296 0.27599999 -1.1339999 25461123
0.294 0.27599999 -0 25062530
0.29300001 0.27599999 -1.142 24802428
0.292 0.27599999 -1.142 25196662
0.273 0.27599999 -1.169 25659269
0.27200001 0.27599999 -1.169 25592460
0.25 0.27599999 -1.181 25394556
0.23800001 0.27599999 -1.197 26119530
0.237 0.27599999 -1.206 26971502
0.236 0.27599999 -1.206 26512755
0.235 0.27599999 -0 25981806
0.234 0.27599999 -0 22834537
0.233 0.27599999 -0 19617381
0.23199999 0.27599999 -0 22633825
0.23100001 0.27599999 -0 25591164
0.23 0.27599999 -0 25597078
0.229 0.27599999 -0 25592962
0.228 0.27599999 -0 26052973
0.227 0.27599999 -0 26508140
0.226 0.27599999 -0 25980267
0.22499999 0.27599999 -0 25459068
0.22400001 0.27599999 -0 25987213
0.223 0.27599999 -1.227 26443904
0.20100001 0.27599999 -1.268 27036801
0.191 0.27599999 -1.277 25915513
0.19 0.27599999 -1.277 25069965
0.189 0.27599999 -0 24215416
0.18799999 0.27599999 -0 25263715
0.18700001 0.27599999 -0 26246768
0.186 0.27599999 -0 24870525
0.185 0.27599999 -4.0929999 23424360
0.184 0.27599999 -4.0929999 23551571
0.183 0.27599999 -4.0929999 23682146
0.18000001 0.27599999 -4.0929999 24541545
-0.017000001 0.27599999 -1.0779999 31776730
-0.017999999 0.27599999 -1.0779999 31579343
-0.018999999 0.27599999 -0 31381977
-0.02 0.27599999 -0 31518436
-0.021 0.27599999 -0 31575518
-0.022 0.27599999 -0 29215193
-0.023 0.27599999 -0 26846414
-0.024 0.27599999 -0 24947139
-0.63999999 0.27599999 -0 29342155
0.36899999 0.27500001 -0 24672617
0.368 0.27500001 -0 24410465
0.36700001 0.27500001 -0 24213102
0.366 0.27500001 -0 24803450
0.36500001 0.27500001 -1.0880001 25394043
0.31299999 0.27500001 -1.12 24936575
0.31200001 0.27500001 -1.12 25065851
0.31099999 0.27500001 -1.123 25128812
0.31 0.27500001 -1.123 25327453
0.30700001 0.27500001 -1.12 24934784
0.30599999 0.27500001 -1.12 25394562
0.30500001 0.27500001 -1.12 25919365
0.30399999 0.27500001 -1.12 26117767
0.29699999 0.27500001 -1.1339999 25919617
0.296 0.27500001 -1.1339999 25789057
0.29499999 0.27500001 -0 25658240
0.294 0.27500001 -0 25066623
0.29300001 0.27500001 -1.142 24476799
0.292 0.27500001 -1.142 24868735
0.273 0.27500001 -1.169 25459069
0.27200001 0.27500001 -1.169 25460602
0.25099999 0.27500001 -1.181 25195888
0.25 0.27500001 -1.181 25393532
0.23800001 0.27500001 -1.197 25330028
0.237 0.27500001 -1.206 25660534
0.236 0.27500001 -1.206 25201792
0.235 0.27500001 -0 24743280
0.234 0.27500001 -0 23224927
0.233 0.27500001 -0 21636446
0.23199999 0.27500001 -0 23420252
0.23100001 0.27500001 -0 25200244
0.23 0.27500001 -0 25200524
0.229 0.27500001 -0 25263997
0.228 0.27500001 -0 25002349
0.227 0.27500001 -0 24741221
0.226 0.27500001 -0 24867676
0.22499999 0.27500001 -0 25061740
0.22400001 0.27500001 -0 25720187
0.191 0.27500001 -1.277 24671358
0.19 0.27500001 -1.277 25133991
0.189 0.27500001 -0 25593480
0.18799999 0.27500001 -0 25657704
0.185 0.27500001 -4.0929999 25264218
0.184 0.27500001 -4.0929999 24342836
0.183 0.27500001 -4.0929999 23422798
0.182 0.27500001 -4.0929999 23619176
0.18099999 0.27500001 -4.0929999 23884905
0.18000001 0.27500001 -4.0929999 24211817
-0.003 0.27500001 -1.0880001 31579624
-0.0040000002 0.27500001 -1.0880001 31579357
-0.0049999999 0.27500001 -1.085 31578589
-0.0060000001 0.27500001 -1.085 31710172
-0.015 0.27500001 -1.0779999 30467041
-0.016000001 0.27500001 -1.0779999 29415139
-0.017000001 0.27500001 -1.0779999 28365779
-0.017999999 0.27500001 -1.0779999 26260674
-0.018999999 0.27500001 -0 24164303
-0.02 0.27500001 -0 24813275
-0.021 0.27500001 -0 25534416
-0.022 0.27500001 -0 23686084
-0.023 0.27500001 -0 21840315
-0.024 0.27500001 -0 20924081
-0.039000001 0.27500001 -0 17571202
-0.039999999 0.27500001 -0 17702275
-0.041000001 0.27500001 -0 17898884
-0.041999999 0.27500001 -0 17898628
0.36899999 0.27399999 -0 24802669
0.368 0.27399999 -0 24804199
0.36700001 0.27399999 -0 24804463
0.366 0.27399999 -0 24871031
0.36500001 0.27399999 -1.0880001 24868730
0.33700001 0.27399999 -0 23951235
0.336 0.27399999 -0 24672127
0.32699999 0.27399999 -1.105 23227765
0.32600001 0.27399999 -1.105 24469611
0.31400001 0.27399999 -1.109 25065857
0.31200001 0.27399999 -1.1160001 24998015
0.31099999 0.27399999 -1.123 25131385
0.31 0.27399999 -1.123 25395060
0.30500001 0.27399999 -1.12 25724289
0.30399999 0.27399999 -1.12 26185346
0.296 0.27399999 -1.131 26051713
0.29499999 0.27399999 -1.102 25920128
0.294 0.27399999 -1.102 25002878
0.29300001 0.27399999 -1.102 24083068
0.292 0.27399999 -1.102 24605819
0.273 0.27399999 -0 25194363
0.27200001 0.27399999 -0 25330552
0.271 0.27399999 -1.161 25461115
0.27000001 0.27399999 -1.161 24738430
0.23800001 0.27399999 -1.197 24540015
0.237 0.27399999 -1.206 24279664
0.236 0.27399999 -1.206 23890546
0.233 0.27399999 -1.219 23682154
0.23199999 0.27399999 -1.219 24276078
0.23100001 0.27399999 -1.219 24803199
0.23 0.27399999 -1.219 24871824
0.229 0.27399999 -1.219 24870788
0.228 0.27399999 -1.219 23885944
0.227 0.27399999 -0 22902131
0.226 0.27399999 -0 23752558
0.22499999 0.27399999 -0 24605301
0.22400001 0.27399999 -0 25521789
0.191 0.27399999 -1.277 23359606
0.19 0.27399999 -1.277 25200518
0.189 0.27399999 -0 26968955
0.183 0.27399999 -4.0929999 23161178
0.182 0.27399999 -4.0929999 23291500
0.18099999 0.27399999 -4.0929999 23422058
0.18000001 0.27399999 -4.0929999 23880041
0.13699999 0.27399999 -1.095 25856136
0.13600001 0.27399999 -1.095 25790598
0.13500001 0.27399999 -1.095 25724295
-0.001 0.27399999 -0 32300773
-0.0020000001 0.27399999 -0 31907813
-0.003 0.27399999 -0 31514338
-0.0040000002 0.27399999 -0 31578080
-0.0049999999 0.27399999 -0 31644130
-0.0060000001 0.27399999 -0 31907044
-0.0070000002 0.27399999 -0 32104420
-0.0080000004 0.27399999 -0 32236517
-0.0089999996 0.27399999 -0.54900002 32367074
-0.0099999998 0.27399999 -0.54900002 32567264
-0.013 0.27399999 -1.0779999 31708382
-0.014 0.27399999 -1.0779999 30072797
-0.018999999 0.27399999 -0 16864691
-0.02 0.27399999 -0 18167212
0.36899999 0.273 -0 24603249
0.368 0.273 -0 24474476
0.36700001 0.273 -0 24346224
0.366 0.273 -0 24538739
0.36500001 0.273 -1.0880001 24732282
0.33700001 0.273 -0 24606333
0.32699999 0.273 -1.105 23948654
0.32600001 0.273 -1.105 24603230
0.31400001 0.273 -1.109 25392511
0.31200001 0.273 -1.1160001 25392771
0.31099999 0.273 -1.123 25396359
0.30500001 0.273 -1.12 24937597
0.30399999 0.273 -1.12 25657980
0.29499999 0.273 -1.102 25656703
0.294 0.273 -1.102 25591421
0.29300001 0.273 -1.102 25458298
0.292 0.273 -1.102 25326710
0.273 0.273 -0 23356538
0.27200001 0.273 -0 24605814
0.271 0.273 -1.161 25790584
0.27000001 0.273 -1.161 25462649
0.23800001 0.273 -1.197 23685234
0.233 0.273 -1.219 23230071
0.23199999 0.273 -1.219 22898559
0.23100001 0.273 -1.219 22570377
0.23 0.273 -1.219 23687571
0.229 0.273 -1.219 24871051
0.228 0.273 -1.219 24936066
0.227 0.273 -0 24996225
0.226 0.273 -0 25130111
0.22499999 0.273 -0 25265023
0.22400001 0.273 -0 25000062
0.191 0.273 -1.277 23355758
0.19 0.273 -1.277 24672356
0.183 0.273 -4.0929999 23681127
0.182 0.273 -4.0929999 23354223
0.18099999 0.273 -4.0929999 23024492
0.18000001 0.273 -4.0929999 23617384
0.13699999 0.273 -1.095 25856909
0.13600001 0.273 -1.095 25855885
0.13500001 0.273 -1.095 25854856
-0.001 0.273 -0 32103647
-0.0020000001 0.273 -0 32039382
-0.003 0.273 -0 32039900
-0.0040000002 0.273 -0 32104162
-0.0049999999 0.273 -0 32168423
-0.0060000001 0.273 -0 31645419
-0.0070000002 0.273 -0 31187435
-0.0080000004 0.273 -0 30268395
-0.013 0.273 -1.0779999 24290261
-0.014 0.273 -1.0779999 23492315
-0.018999999 0.273 -0 16843159
-0.02 0.273 -0 17502332
0.36899999 0.27200001 -0 24407405
0.368 0.27200001 -0 24143714
0.36700001 0.27200001 -0 23882342
0.366 0.27200001 -0 24205417
0.36500001 0.27200001 -0 24536687
0.36399999 0.27200001 -0 24534901
0.31299999 0.27200001 -1.12 25916291
0.31200001 0.27200001 -1.12 25786756
0.29499999 0.27200001 -1.102 25395069
0.294 0.27200001 -1.102 26116728
0.29300001 0.27200001 -1.1339999 26836090
0.292 0.27200001 -1.1339999 26112893
0.26499999 0.27200001 -1.161 25066616
0.264 0.27200001 -1.161 25066620
0.252 0.27200001 -1.169 25330803
0.25099999 0.27200001 -1.169 25526385
0.25 0.27200001 -1.169 25394288
0.241 0.27200001 -1.202 25397631
0.23999999 0.27200001 -1.202 24412551
0.23899999 0.27200001 -1.202 23425401
0.23800001 0.27200001 -1.202 22892139
0.226 0.27200001 -1.214 26506372
0.22499999 0.27200001 -1.214 25917054
0.22400001 0.27200001 -1.214 24473209
0.191 0.27200001 -1.272 23294323
0.19 0.27200001 -1.272 24145774
0.001 0.27200001 -0 32236006
0 0.27200001 -0 32039394
-0.001 0.27200001 -0 31843040
-0.0020000001 0.27200001 -0 32237533
-0.003 0.27200001 -0 32563422
-0.0040000002 0.27200001 -0 32629983
-0.0049999999 0.27200001 -0 32626399
-0.0060000001 0.27200001 -0 31449567
0.36899999 0.271 -0 24342633
0.368 0.271 -0 24604248
0.36700001 0.271 -0 24931164
0.366 0.271 -0 24998495
0.36500001 0.271 -0 25067109
0.36399999 0.271 -0 24932714
0.33700001 0.271 -1.102 25264508
0.336 0.271 -1.102 25265031
0.31299999 0.271 -1.12 24605574
0.31200001 0.271 -1.12 24868484
0.29499999 0.271 -1.102 25198202
0.294 0.271 -1.102 25788786
0.29300001 0.271 -1.1339999 26379131
0.292 0.271 -1.1339999 25984388
0.264 0.271 -1.161 25000309
0.252 0.271 -1.169 25328491
0.25099999 0.271 -1.169 25527661
0.25 0.271 -1.169 25330287
0.23899999 0.271 -1.202 23950968
0.23800001 0.271 -1.202 23027812
0.22499999 0.271 -1.214 25588862
0.22400001 0.271 -1.214 24866675
0.19499999 0.271 -1.277 23879025
0.19400001 0.271 -1.277 24933766
0.191 0.271 -1.272 24014969
0.19 0.271 -1.272 24341879
0.003 0.271 -1.098 32236008
0.0020000001 0.271 -1.098 32171505
0.001 0.271 -0 32106983
0 0.271 -0 31186908
-0.001 0.271 -0 30335712
-0.0020000001 0.271 -0 29610468
-0.003 0.271 -0 28955104
-0.0040000002 0.271 -0 26850524
-0.0049999999 0.271 -0 24820439
-0.0060000001 0.271 -0 24220114
0.36700001 0.27000001 -0 25917540
0.366 0.27000001 -0 25724776
0.36500001 0.27000001 -0 25526890
0.36399999 0.27000001 -0 25266028
0.36300001 0.27000001 -0 24998001
0.36199999 0.27000001 -0 25126262
0.33899999 0.27000001 -1.102 24541037
0.338 0.27000001 -1.102 24936292
0.33700001 0.27000001 -1.102 25264495
0.336 0.27000001 -1.102 25397370
0.331 0.27000001 -1.113 24934785
0.33000001 0.27000001 -1.113 25135234
0.329 0.27000001 -1.113 25264763
0.31400001 0.27000001 -1.1160001 24543377
0.31299999 0.27000001 -1.127 23296131
0.29499999 0.27000001 -1.105 24999794
0.294 0.27000001 -1.105 25460582
0.29300001 0.27000001 -1.1339999 25921147
0.292 0.27000001 -1.1339999 25857423
0.29100001 0.27000001 -1.138 25788805
0.28999999 0.27000001 -1.138 25918587
0.26899999 0.27000001 -1.1569999 26510475
0.26800001 0.27000001 -1.1569999 26051478
0.264 0.27000001 -1.161 24996728
0.245 0.27000001 -1.21 25330299
0.244 0.27000001 -1.21 25199741
0.22400001 0.27000001 -1.214 25328504
0.223 0.27000001 -1.214 25327994
0.222 0.27000001 -1.214 25527164
0.221 0.27000001 -1.219 25724294
0.22 0.27000001 -1.219 25396369
0.191 0.27000001 -1.272 24737657
0.19 0.27000001 -1.272 24534909
0.017000001 0.27000001 -0 31512535
0.016000001 0.27000001 -0 31579353
0.015 0.27000001 -0 31579615
0.014 0.27000001 -0 31579365
0.013 0.27000001 -0 31513570
0.012 0.27000001 -0 31776224
0.011 0.27000001 -0 31974371
0.0099999998 0.27000001 -0 32436198
0.0089999996 0.27000001 -0 32894694
0.0080000004 0.27000001 -0 32632294
0.0070000002 0.27000001 -0 32369642
0.0060000001 0.27000001 -0 32433647
0.0049999999 0.27000001 -0 32498664
0.0040000002 0.27000001 -0 32697569
0.003 0.27000001 -0 32825568
0.0020000001 0.27000001 -0 32369888
0.001 0.27000001 -0 31904732
0 0.27000001 -0 30331353
-0.001 0.27000001 -0 28750551
-0.0020000001 0.27000001 -0 27044053
-0.003 0.27000001 -0 25265099
-0.0040000002 0.27000001 -0 21127105
0.36700001 0.26899999 -0 24672365
0.366 0.26899999 -0 24343408
0.36500001 0.26899999 -0 24017775
0.36399999 0.26899999 -0 23820654
0.36300001 0.26899999 -0 23688052
0.36199999 0.26899999 -0 23748729
0.33899999 0.26899999 -1.102 24800105
0.338 0.26899999 -1.102 24999254
0.33700001 0.26899999 -1.102 25197921
0.336 0.26899999 -1.102 25395052
0.331 0.26899999 -1.113 24802185
0.33000001 0.26899999 -1.113 24934800
0.329 0.26899999 -1.113 25132676
0.31600001 0.26899999 -1.109 25655923
0.315 0.26899999 -1.1160001 25524871
0.31400001 0.26899999 -1.1160001 25198746
0.29499999 0.26899999 -1.105 25325417
0.294 0.26899999 -1.105 25000026
0.29300001 0.26899999 -1.1339999 24610938
0.292 0.26899999 -1.1339999 25200026
0.29100001 0.26899999 -1.138 25791882
0.28999999 0.26899999 -1.138 25788794
0.26899999 0.26899999 -1.1569999 24477313
0.26800001 0.26899999 -1.1569999 25067651
0.245 0.26899999 -1.21 25264248
0.244 0.26899999 -1.21 25261692
0.22400001 0.26899999 -1.214 25065340
0.223 0.26899999 -1.214 24872571
0.222 0.26899999 -1.214 25132410
0.22 0.26899999 -1.219 25655428
0.192 0.26899999 -1.272 25527664
0.191 0.26899999 -1.272 26181498
0.19 0.26899999 -1.272 25196419
0.017000001 0.26899999 -0 31512280
0.016000001 0.26899999 -0 31578841
0.015 0.26899999 -0 31711458
0.014 0.26899999 -0 31841770
0.013 0.26899999 -0 31905767
0.012 0.26899999 -0 32105187
0.011 0.26899999 -0 32368614
0.0099999998 0.26899999 -0 32435944
0.0089999996 0.26899999 -0 32567784
0.0080000004 0.26899999 -0 32174056
0.0070000002 0.26899999 -0 31847657
0.0060000001 0.26899999 -0 30662634
0.0049999999 0.26899999 -0 29482215
0.0040000002 0.26899999 -0 27772899
0.003 0.26899999 -0 26134489
0.0020000001 0.26899999 -0 25274574
0.001 0.26899999 -0 24422354
0 0.26899999 -0 23624406
-0.001 0.26899999 -0 22834126
-0.0020000001 0.26899999 -0 21910214
-0.003 0.26899999 -0 21050038
-0.0040000002 0.26899999 -0 19015077
0.36700001 0.26800001 -0 23423591
0.366 0.26800001 -0 22958960
0.36500001 0.26800001 -0 22506607
0.36399999 0.26800001 -0 22441839
0.36300001 0.26800001 -0 22308457
0.36199999 0.26800001 -0 22367844
0.361 0.26800001 -0 22436204
0.36000001 0.26800001 -0 23883124
0.331 0.26800001 -1.113 24604545
0.33000001 0.26800001 -1.113 24799872
0.329 0.26800001 -1.113 24934012
0.32800001 0.26800001 -1.113 24935801
0.31600001 0.26800001 -0 25454949
0.315 0.26800001 -0 25327736
0.31400001 0.26800001 -0 25855627
0.31299999 0.26800001 -1.1339999 26378102
0.31200001 0.26800001 -1.1339999 25590626
0.29899999 0.26800001 -1.1160001 26250112
0.29800001 0.26800001 -1.1160001 26055048
0.29699999 0.26800001 -1.1160001 25791106
0.296 0.26800001 -1.1160001 25724284
0.29499999 0.26800001 -1.113 25655158
0.294 0.26800001 -1.113 24472176
0.29300001 0.26800001 -1.113 23294592
0.292 0.26800001 -1.113 24539792
0.29100001 0.26800001 -1.113 25723525
0.28999999 0.26800001 -1.113 25659258
0.26899999 0.26800001 -1.161 22441601
0.227 0.26800001 -1.232 25785969
0.226 0.26800001 -1.232 25596534
0.22499999 0.26800001 -1.232 25328251
0.22400001 0.26800001 -1.232 24864385
0.223 0.26800001 -1.24 24407934
0.222 0.26800001 -1.24 24736891
0.192 0.26800001 -1.268 25922155
0.191 0.26800001 -1.272 27561079
0.19 0.26800001 -1.272 25858691
0.13500001 0.26800001 -1.081 26249607
0.018999999 0.26800001 -0 31250138
0.017999999 0.26800001 -0 31381979
0.017000001 0.26800001 -0 31447516
0.016000001 0.26800001 -0 31643358
0.015 0.26800001 -0 31841505
0.014 0.26800001 -0 32105189
0.013 0.26800001 -0 32301284
0.012 0.26800001 -0 32500708
0.011 0.26800001 -0 32697316
0.0099999998 0.26800001 -0 32436964
0.0089999996 0.26800001 -0 32170469
0.0080000004 0.26800001 -0 31714023
0.0070000002 0.26800001 -0 31247337
0.0060000001 0.26800001 -0 28887019
0.0049999999 0.26800001 -0 26451670
0.0040000002 0.26800001 -0 22908096
0.003 0.26800001 -0 19359676
0.0020000001 0.26800001 -0 18106295
0.001 0.26800001 -0 16858543
0 0.26800001 -0 16843943
-0.001 0.26800001 -0 16850088
-0.0020000001 0.26800001 -0 16843177
0.36700001 0.26699999 -0 24082274
0.366 0.26699999 -0 24277359
0.36500001 0.26699999 -0 24473967
0.36399999 0.26699999 -0 24212591
0.36300001 0.26699999 -0 23881567
0.36199999 0.26699999 -0 23617871
0.361 0.26699999 -0 23416927
0.36000001 0.26699999 -0 24275055
0.331 0.26699999 -1.113 24996985
0.33000001 0.26699999 -1.113 25195119
0.329 0.26699999 -1.113 25457781
0.32800001 0.26699999 -1.113 25196154
0.32699999 0.26699999 -1.113 24869763
0.31400001 0.26699999 -0 25394299
0.31299999 0.26699999 -1.1339999 25590125
0.31200001 0.26699999 -1.1339999 25196638
0.29899999 0.26699999 -1.1160001 25727872
0.29800001 0.26699999 -1.1160001 25727630
0.29699999 0.26699999 -1.1160001 25726599
0.296 0.26699999 -1.1160001 25592959
0.29499999 0.26699999 -1.113 25525634
0.294 0.26699999 -1.113 24736645
0.29300001 0.26699999 -1.113 24012166
0.292 0.26699999 -1.113 24736134
0.29100001 0.26699999 -1.113 25461376
0.28999999 0.26699999 -1.113 25461370
0.26899999 0.26699999 -1.161 23550850
0.227 0.26699999 -1.232 25786218
0.226 0.26699999 -1.232 25592696
0.22499999 0.26699999 -1.232 25459327
0.22400001 0.26699999 -1.232 25195653
0.223 0.26699999 -1.24 24927105
0.222 0.26699999 -1.24 25062012
0.192 0.26699999 -1.268 25722214
0.191 0.26699999 -1.272 26776436
0.19 0.26699999 -1.272 26054786
0.13500001 0.26699999 -1.081 26314877
0.018999999 0.26699999 -0 31578078
0.017999999 0.26699999 -0 31711455
0.017000001 0.26699999 -0 31842273
0.016000001 0.26699999 -0 31644642
0.015 0.26699999 -0 31447521
0.014 0.26699999 -0 30858207
0.013 0.26699999 -0 30268130
0.012 0.26699999 -0 30530276
0.011 0.26699999 -0 30861026
0.0099999998 0.26699999 -0 29083615
0.0089999996 0.26699999 -0 27309795
0.0080000004 0.26699999 -0 25797094
0.0070000002 0.26699999 -0 24217833
0.0060000001 0.26699999 -0 22963948
0.0049999999 0.26699999 -0 21645509
0.0040000002 0.26699999 -0 19871389
0.003 0.26699999 -0 18088351
0.0020000001 0.26699999 -0 17503136
0.001 0.26699999 -0 16843148
0 0.26699999 -0 16843384
-0.001 0.26699999 -0 16843138
-0.0020000001 0.26699999 -0 17040523
-0.193 0.26699999 -0 27569074
0.36700001 0.266 -0 24736622
0.366 0.266 -0 25593977
0.36500001 0.266 -0 26444917
0.36399999 0.266 -0 25987442
0.36300001 0.266 -0 25459561
0.36199999 0.266 -0 24936032
0.361 0.266 -0 24342117
0.36000001 0.266 -0 24669290
0.34 0.266 -1.098 25395567
0.32499999 0.266 -1.113 24870012
0.32100001 0.266 -1.1160001 24802680
0.31999999 0.266 -1.1160001 25003912
0.292 0.266 -1.12 24996207
0.29100001 0.266 -1.113 25196404
0.28999999 0.266 -1.113 25264248
0.289 0.266 -1.1339999 25263220
0.28799999 0.266 -1.1339999 25194352
0.25099999 0.266 -1.181 26244462
0.25 0.266 -1.181 25846372
0.22499999 0.266 -1.232 25528197
0.223 0.266 -1.2359999 25393540
0.222 0.266 -1.2359999 25389435
0.211 0.266 -1.2359999 26709894
0.20999999 0.266 -1.2359999 25859207
0.19599999 0.266 -1.263 25331326
0.193 0.266 -1.268 25065070
0.192 0.266 -1.268 25524843
0.191 0.266 -1.272 25987709
0.19 0.266 -1.272 26255760
0.021 0.266 -0 32301786
0.02 0.266 -0 32104154
0.018999999 0.266 -0 31907544
0.017999999 0.266 -0 32043478
0.017000001 0.266 -0 32168912
0.016000001 0.266 -0 31645642
0.015 0.266 -0 31050193
0.014 0.266 -0 29611481
0.013 0.266 -0 28163284
0.012 0.266 -0 28622031
0.003 0.266 -0 16843145
0.0020000001 0.266 -0 16843146
0.36700001 0.26499999 -0 24404859
0.366 0.26499999 -0 25066882
0.36500001 0.26499999 -0 25791867
0.36399999 0.26499999 -0 25527412
0.36300001 0.26499999 -0 25198194
0.36199999 0.26499999 -0 24935792
0.361 0.26499999 -0 24673386
0.36000001 0.26499999 -0 25065060
0.34099999 0.26499999 -1.098 25456757
0.34 0.26499999 -1.098 25393519
0.32499999 0.26499999 -1.113 24867189
0.324 0.26499999 -1.113 24538481
0.32300001 0.26499999 -1.113 24207467
0.322 0.26499999 -1.113 24537444
0.32100001 0.26499999 -1.1160001 24932474
0.31999999 0.26499999 -1.1160001 25068176
0.31299999 0.26499999 -1.131 25066364
0.292 0.26499999 -1.12 24671576
0.29100001 0.26499999 -1.113 24998247
0.28999999 0.26499999 -1.113 25065590
0.289 0.26499999 -1.1339999 25133946
0.28799999 0.26499999 -1.1339999 25196158
0.25099999 0.26499999 -1.181 26248041
0.25 0.26499999 -1.181 25522780
0.22499999 0.26499999 -1.232 25200267
0.223 0.26499999 -1.2359999 26381447
0.222 0.26499999 -1.2359999 25723513
0.211 0.26499999 -1.2359999 25987194
0.20999999 0.26499999 -1.2359999 25528458
0.2 0.26499999 -1.2589999 25196653
0.199 0.26499999 -1.263 24865890
0.198 0.26499999 -1.263 24535894
0.197 0.26499999 -1.263 24205167
0.19599999 0.26499999 -1.263 25063816
0.19499999 0.26499999 -1.268 25985923
0.19400001 0.26499999 -1.268 25592445
0.193 0.26499999 -1.268 25263479
0.192 0.26499999 -1.268 24999024
0.191 0.26499999 -1.272 24803719
0.19 0.26499999 -1.272 25397149
0.021 0.26499999 -0 30532825
0.02 0.26499999 -0 29610967
0.018999999 0.26499999 -0 28758994
0.017999999 0.26499999 -0 27836365
0.017000001 0.26499999 -0 26853055
0.016000001 0.26499999 -0 25401521
0.015 0.26499999 -0 23959746
0.014 0.26499999 -0 23231954
0.013 0.26499999 -0 22513094
0.012 0.26499999 -0 23103930
0.003 0.26499999 -0 17236340
0.0020000001 0.26499999 -0 17238388
-0.634 0.26499999 -0.625 26454979
0.36700001 0.264 -0 24013431
0.366 0.264 -0 24607865
0.36500001 0.264 -0 25132662
0.36399999 0.264 -0 25066355
0.36300001 0.264 -0 24933744
0.36199999 0.264 -0 25001326
0.361 0.264 -0 25000300
0.36000001 0.264 -0 25526377
0.359 0.264 -0 26049133
0.35800001 0.264 -0 25260656
0.31299999 0.264 -1.131 25327740
0.31099999 0.264 -1.1339999 25659266
0.29100001 0.264 -1.12 24803692
0.28999999 0.264 -1.12 24931444
0.289 0.264 -1.131 24999804
0.28799999 0.264 -1.131 25199492
0.266 0.264 -1.153 24607098
0.25099999 0.264 -1.189 26246772
0.25 0.264 -1.189 25195894
0.212 0.264 -1.2359999 23954278
0.211 0.264 -1.2359999 25264756
0.20999999 0.264 -1.2359999 25199489
0.20100001 0.264 -1.2589999 24931187
0.2 0.264 -1.2589999 24936557
0.199 0.264 -1.263 24869735
0.198 0.264 -1.263 24735073
0.197 0.264 -1.263 24536689
0.19599999 0.264 -1.263 24863874
0.037 0.264 -1.098 31249879
0.035999998 0.264 -1.098 31644627
0.035 0.264 -1.098 31972311
0.034000002 0.264 -1.098 31643098
0.033 0.264 -0 31250391
0.032000002 0.264 -0 31316180
0.030999999 0.264 -0 31315412
0.029999999 0.264 -0 31312341
0.023 0.264 -0 31510228
0.022 0.264 -0 30134746
0.021 0.264 -0 28686551
0.02 0.264 -0 27178708
0.018999999 0.264 -0 25596103
0.017999999 0.264 -0 23558585
-0.206 0.264 -0.53100002 30393040
-0.207 0.264 -0.53100002 30393554
-0.208 0.264 -0.53100002 30457811
-0.60299999 0.264 -0 29734860
-0.60399997 0.264 -0 29406672
-0.63300002 0.264 -0.625 23627662
-0.634 0.264 -0.625 22969483
0.36700001 0.26300001 -0 23092596
0.366 0.26300001 -0 23815791
0.36500001 0.26300001 -0 24606064
0.36399999 0.26300001 -0 23489393
0.36300001 0.26300001 -0 22437743
0.36199999 0.26300001 -0 22633324
0.361 0.26300001 -0 22834285
0.36000001 0.26300001 -0 23424366
0.359 0.26300001 -0 24020086
0.35800001 0.26300001 -0 24080254
0.31299999 0.26300001 -1.131 25456252
0.31099999 0.26300001 -1.1339999 25987205
0.29100001 0.26300001 -1.12 25922417
0.28999999 0.26300001 -1.12 25329010
0.289 0.26300001 -1.131 24668542
0.28799999 0.26300001 -1.131 24934793
0.266 0.26300001 -1.153 24803196
0.25099999 0.26300001 -1.189 26575743
0.212 0.26300001 -1.2359999 24146019
0.211 0.26300001 -1.2359999 25000302
0.20999999 0.26300001 -1.2359999 25135224
0.20100001 0.26300001 -1.2589999 25450363
0.2 0.26300001 -1.2589999 25523565
0.199 0.26300001 -1.263 25596269
0.198 0.26300001 -1.263 25001580
0.197 0.26300001 -1.263 24473460
0.19599999 0.26300001 -1.263 24540795
0.037 0.26300001 -1.098 31444946
0.035999998 0.26300001 -1.098 31643601
0.035 0.26300001 -1.098 31774681
0.034000002 0.26300001 -1.098 31841249
0.033 0.26300001 -0 31906779
0.032000002 0.26300001 -0 31644884
0.030999999 0.26300001 -0 31447255
0.029999999 0.26300001 -0 31250905
0.024 0.26300001 -1.091 25864127
0.023 0.26300001 -0 24618188
0.022 0.26300001 -0 23690712
0.021 0.26300001 -0 22770901
0.02 0.26300001 -0 21978833
0.018999999 0.26300001 -0 21249723
0.017999999 0.26300001 -0 20198053
-0.206 0.26300001 -0.53100002 30459855
-0.207 0.26300001 -0.53100002 30459857
-0.208 0.26300001 -0.53100002 30590419
-0.61199999 0.26300001 -0.63300002 29606343
-0.62900001 0.26300001 -0.625 23686540
-0.63 0.26300001 -0.625 23688586
-0.63099998 0.26300001 -0.625 23752052
-0.63200003 0.26300001 -0.625 22964574
-0.63300002 0.26300001 -0.625 22175321
-0.634 0.26300001 -0.625 21389139
0.36700001 0.26199999 -0 22173295
0.366 0.26199999 -0 23087463
0.36500001 0.26199999 -0 24010348
0.36399999 0.26199999 -0 21978737
0.36300001 0.26199999 -0 19877737
0.36199999 0.26199999 -0 20259425
0.361 0.26199999 -0 20596836
0.36000001 0.26199999 -0 21316199
0.359 0.26199999 -1.091 21977440
0.35800001 0.26199999 -1.091 22894426
0.31200001 0.26199999 -0 25919364
0.31099999 0.26199999 -1.1339999 26312581
0.31 0.26199999 -1.1339999 25853061
0.28999999 0.26199999 -1.123 25728395
0.289 0.26199999 -1.127 24345980
0.28799999 0.26199999 -1.127 24735342
0.266 0.26199999 -1.153 24999031
0.215 0.26199999 -1.249 25921416
0.199 0.26199999 -1.263 26312564
0.198 0.26199999 -1.263 25332092
0.117 0.26199999 -1.071 27366029
0.116 0.26199999 -1.071 25197179
0.039000001 0.26199999 -0 32300755
0.037999999 0.26199999 -0 31973338
0.037 0.26199999 -1.098 31644633
0.035999998 0.26199999 -1.098 31644376
0.035 0.26199999 -1.098 31579615
0.034000002 0.26199999 -1.098 32040166
0.033 0.26199999 -0 32497627
0.032000002 0.26199999 -0 32039887
0.030999999 0.26199999 -0 31578573
0.029999999 0.26199999 -0 31188171
0.028999999 0.26199999 -0 30787020
0.028000001 0.26199999 -0 29212877
0.027000001 0.26199999 -0 27632071
0.026000001 0.26199999 -0 24943041
0.025 0.26199999 -0 22245052
0.024 0.26199999 -0 20008376
0.023 0.26199999 -0 17711025
0.022 0.26199999 -0 17304489
0.021 0.26199999 -0 16852135
0.02 0.26199999 -0 16846501
-0.207 0.26199999 -0.53100002 30460621
-0.208 0.26199999 -0.53100002 30724556
-0.62900001 0.26199999 -0.62599999 19095654
-0.63 0.26199999 -0.62599999 20404079
-0.63099998 0.26199999 -0.62599999 21650277
-0.63200003 0.26199999 -0.62599999 21189978
-0.63300002 0.26199999 -0.62599999 20729164
-0.634 0.26199999 -0.62599999 19744574
0.36700001 0.26100001 -0 23616106
0.366 0.26100001 -0 23879262
0.36500001 0.26100001 -0 24206440
0.36399999 0.26100001 -0 23223921
0.36300001 0.26100001 -0 22240355
0.36199999 0.26100001 -0 22499669
0.361 0.26100001 -0 22696026
0.36000001 0.26100001 -0 23090527
0.359 0.26100001 -1.091 23414858
0.35800001 0.26100001 -1.091 23746613
0.31200001 0.26100001 -0 25130888
0.31099999 0.26100001 -1.1339999 25786756
0.31 0.26100001 -1.1339999 25525376
0.28999999 0.26100001 -1.123 26053795
0.289 0.26100001 -1.127 25463163
0.28799999 0.26100001 -1.127 24999507
0.266 0.26100001 -1.153 25130865
0.215 0.26100001 -1.249 25855873
0.199 0.26100001 -1.263 24475259
0.198 0.26100001 -1.263 25068171
0.117 0.26100001 -1.071 27302027
0.116 0.26100001 -1.071 25263220
0.039000001 0.26100001 -0 32695766
0.037999999 0.26100001 -0 32433377
0.037 0.26100001 -1.098 32171488
0.035999998 0.26100001 -1.098 31514590
0.035 0.26100001 -1.098 30925029
0.034000002 0.26100001 -1.098 30399211
0.033 0.26100001 -0 29874907
0.032000002 0.26100001 -0 27901898
0.030999999 0.26100001 -0 26002371
0.029999999 0.26100001 -0 24944060
0.028999999 0.26100001 -0 23826625
0.028000001 0.26100001 -0 23030470
0.027000001 0.26100001 -0 22237885
0.026000001 0.26100001 -0 20922036
0.025 0.26100001 -0 19533235
0.024 0.26100001 -0 18421681
0.023 0.26100001 -0 17301910
0.022 0.26100001 -0 17040506
0.021 0.26100001 -0 16843129
0.02 0.26100001 -0 16975992
-0.207 0.26100001 -0.53100002 30525385
-0.208 0.26100001 -0.53100002 30591172
-0.62900001 0.26100001 -0.62599999 20538432
-0.63 0.26100001 -0.62599999 20337748
-0.63099998 0.26100001 -0.62599999 20141141
-0.63200003 0.26100001 -0.62599999 19679830
-0.63300002 0.26100001 -0.62599999 19282240
-0.634 0.26100001 -0.62599999 18888233
0.368 0.25999999 -0.90499997 24539258
0.36700001 0.25999999 -0 24997997
0.366 0.25999999 -0 24738400
0.36500001 0.25999999 -0 24407147
0.36399999 0.25999999 -0 24535414
0.36300001 0.25999999 -1.0779999 24601703
0.36199999 0.25999999 -1.0779999 24737368
0.31200001 0.25999999 -0 24343941
0.31099999 0.25999999 -0 25197183
0.31 0.25999999 -0 25263226
0.289 0.25999999 -1.131 26510467
0.28799999 0.25999999 -1.131 25260911
0.215 0.25999999 -1.249 25723772
0.211 0.25999999 -1.2539999 22637683
0.199 0.25999999 -1.263 22642287
0.198 0.25999999 -1.263 24741750
0.117 0.25999999 -1.071 27233671
0.116 0.25999999 -1.071 25394035
0.041000001 0.25999999 -0 29673675
0.039999999 0.25999999 -0 31382984
0.039000001 0.25999999 -0 33021645
0.037999999 0.25999999 -0 32827346
0.037 0.25999999 -0 32626644
0.035999998 0.25999999 -0 31448279
0.035 0.25999999 -0 30261722
0.034000002 0.25999999 -0 28756957
0.033 0.25999999 -0 27172048
0.032000002 0.25999999 -0 23821507
0.030999999 0.25999999 -0 20406964
0.029999999 0.25999999 -0 18627748
0.028999999 0.25999999 -0 16857256
0.028000001 0.25999999 -0 16844204
0.027000001 0.25999999 -0 16848549
0.026000001 0.25999999 -0 16843167
0.025 0.25999999 -0 16843930
0.024 0.25999999 -0 16843158
0.023 0.25999999 -0 16843654
0.022 0.25999999 -0 16843126
-0.62900001 0.25999999 -0.62599999 21911343
-0.63 0.25999999 -0.62599999 20266799
-0.63099998 0.25999999 -0.62599999 18630446
-0.63200003 0.25999999 -0.62599999 18236462
-0.63300002 0.25999999 -0.62599999 17776174
-0.634 0.25999999 -0.62599999 17968943
0.368 0.259 -0.90499997 24474750
0.36700001 0.259 -0 24738928
0.366 0.259 -0 24606817
0.36500001 0.259 -0 24541038
0.36399999 0.259 -0 24210298
0.36300001 0.259 -1.0779999 23944810
0.34599999 0.259 -1.091 25131122
0.31200001 0.259 -0 24801921
0.31099999 0.259 -0 25198202
0.31 0.259 -0 25002355
0.28799999 0.259 -1.131 25985931
0.215 0.259 -1.249 24542072
0.211 0.259 -1.2539999 24143976
0.199 0.259 -1.263 24080739
0.198 0.259 -1.263 24999776
0.117 0.259 -1.071 27363971
0.116 0.259 -1.071 25327729
0.041000001 0.259 -0 27901905
0.039999999 0.259 -0 28296133
0.039000001 0.259 -0 28692164
0.037999999 0.259 -0 26784706
0.037 0.259 -0 24949705
0.035999998 0.259 -0 24284879
0.035 0.259 -0 23559375
0.034000002 0.259 -0 22767311
0.033 0.259 -0 22040262
0.032000002 0.259 -0 20330172
0.030999999 0.259 -0 18615204
0.029999999 0.259 -0 17766028
0.028999999 0.259 -0 16846223
0.028000001 0.259 -0 17041297
0.027000001 0.259 -0 17236365
0.026000001 0.259 -0 17171849
0.025 0.259 -0 17105282
0.024 0.259 -0 17041530
0.023 0.259 -0 16910966
0.022 0.259 -0 17043058
-0.62900001 0.259 -0.62599999 19809565
-0.63 0.259 -0.62599999 19285001
-0.63099998 0.259 -0.62599999 18826248
-0.63200003 0.259 -0.62599999 18498054
-0.63300002 0.259 -0.62599999 18238237
-0.634 0.259 -0.62599999 18234932
0.368 0.25799999 -0.90499997 24409716
0.36700001 0.25799999 -0 24409450
0.366 0.25799999 -0 24540000
0.36500001 0.25799999 -0 24606567
0.36399999 0.25799999 -0 23951215
0.34799999 0.25799999 -1.085 25329012
0.347 0.25799999 -1.0880001 25458025
0.34599999 0.25799999 -1.0880001 25193822
0.31200001 0.25799999 -0 25193077
0.31099999 0.25799999 -0 25131638
0.31 0.25799999 -0 24741495
0.30899999 0.25799999 -1.12 24346489
0.308 0.25799999 -1.12 24935036
0.30700001 0.25799999 -1.12 25459834
0.26800001 0.25799999 -1.146 25392267
0.21699999 0.25799999 -1.24 25984634
0.2 0.25799999 -1.2539999 24869234
0.199 0.25799999 -1.263 25457777
0.198 0.25799999 -1.263 25190512
0.169 0.25799999 -1.368 25655918
0.168 0.25799999 -1.368 25193587
0.167 0.25799999 -1.368 24671092
0.16599999 0.25799999 -1.368 24673653
0.117 0.25799999 -1.074 27496071
0.116 0.25799999 -1.074 25326706
0.115 0.25799999 -1.068 23158623
0.114 0.25799999 -1.068 22500940
0.043000001 0.25799999 -0 30655180
0.041999999 0.25799999 -0 28427474
0.037 0.25799999 -0 17256878
0.035999998 0.25799999 -0 17051054
0.035 0.25799999 -0 16853932
0.034000002 0.25799999 -0 16843177
0.033 0.25799999 -0 16848292
0.032000002 0.25799999 -0 16843167
0.030999999 0.25799999 -0 16843921
0.029999999 0.25799999 -0 16843395
0.028999999 0.25799999 -0 16845444
0.028000001 0.25799999 -0 17238405
0.027000001 0.25799999 -0 17566846
0.026000001 0.25799999 -0 17502583
0.368 0.257 -0.90499997 24144745
0.36700001 0.257 -0 24079716
0.366 0.257 -0 24473951
0.36500001 0.257 -0 24803937
0.36399999 0.257 -0 24343651
0.34799999 0.257 -1.085 25590636
0.347 0.257 -1.0880001 25917019
0.34599999 0.257 -1.0880001 24998218
0.31299999 0.257 -0 25263469
0.31200001 0.257 -0 25262184
0.31099999 0.257 -0 25197426
0.31 0.257 -0 24934267
0.30899999 0.257 -1.12 24671868
0.308 0.257 -1.12 25131644
0.30700001 0.257 -1.12 25657461
0.26800001 0.257 -1.146 24735360
0.2 0.257 -1.2539999 25197439
0.199 0.257 -1.263 26314112
0.198 0.257 -1.263 25589376
0.169 0.257 -1.368 25265010
0.168 0.257 -1.368 24931953
0.167 0.257 -1.368 24601711
0.16599999 0.257 -1.368 24606573
0.117 0.257 -1.074 27498891
0.116 0.257 -1.074 25327475
0.115 0.257 -1.068 23219541
0.114 0.257 -1.068 22629942
0.043000001 0.257 -0 23759550
0.041999999 0.257 -0 22636744
0.037 0.257 -0 17039764
0.035999998 0.257 -0 16977037
0.035 0.257 -0 16843400
0.034000002 0.257 -0 17171843
0.033 0.257 -0 17499010
0.032000002 0.257 -0 17368449
0.030999999 0.257 -0 17236349
0.029999999 0.257 -0 17304697
0.028999999 0.257 -0 17371513
0.028000001 0.257 -0 17437560
0.027000001 0.257 -0 17568879
0.026000001 0.257 -0 17569637
0.368 0.25600001 -0.90499997 23947114
0.36700001 0.25600001 -0 23751012
0.366 0.25600001 -0 24406879
0.36500001 0.25600001 -0 24998241
0.36399999 0.25600001 -0 24671076
0.36300001 0.25600001 -1.074 24341849
0.34799999 0.25600001 -1.085 25853805
0.347 0.25600001 -1.0880001 26376809
0.34599999 0.25600001 -1.0880001 24868965
0.32100001 0.25600001 -1.249 25785201
0.31999999 0.25600001 -1.249 25525106
0.31900001 0.25600001 -1.249 25262965
0.31799999 0.25600001 -1.249 25263992
0.317 0.25600001 -1.2539999 25197182
0.31600001 0.25600001 -1.2539999 25327236
0.315 0.25600001 -1.249 25391488
0.31400001 0.25600001 -1.249 25326715
0.31299999 0.25600001 -1.249 25262966
0.31200001 0.25600001 -1.249 25263729
0.31099999 0.25600001 -0 25262456
0.31 0.25600001 -0 25126526
0.30899999 0.25600001 -1.1160001 24932481
0.308 0.25600001 -1.1160001 25393284
0.30700001 0.25600001 -1.1160001 25791358
0.30599999 0.25600001 -1.1160001 26123384
0.20100001 0.25600001 -1.2539999 23817059
0.2 0.25600001 -1.2539999 25525365
0.17900001 0.25600001 -1.321 25127803
0.178 0.25600001 -1.321 24012659
0.177 0.25600001 -1.321 22829664
0.176 0.25600001 -1.321 22892109
0.175 0.25600001 -1.326 22895966
0.17399999 0.25600001 -1.326 23947631
0.17299999 0.25600001 -1.336 24999797
0.17200001 0.25600001 -1.336 24806523
0.171 0.25600001 -1.342 24604790
0.17 0.25600001 -1.342 24733298
0.169 0.25600001 -1.352 24802159
0.168 0.25600001 -1.352 24667756
0.167 0.25600001 -1.363 24473197
0.16599999 0.25600001 -1.363 24609134
0.16500001 0.25600001 -1.358 24670827
0.164 0.25600001 -1.358 24730728
0.117 0.25600001 -1.074 27432334
0.116 0.25600001 -1.074 25330553
0.115 0.25600001 -1.061 23226210
0.030999999 0.25600001 -0 17568126
0.029999999 0.25600001 -0 17701500
0.368 0.255 -0.90499997 24144747
0.36700001 0.255 -0 24012133
0.366 0.255 -0 24406878
0.36500001 0.255 -0 24866146
0.36399999 0.255 -0 24670309
0.34799999 0.255 -1.085 25591149
0.347 0.255 -1.0880001 25787511
0.34599999 0.255 -1.0880001 24935552
0.32100001 0.255 -1.249 25394544
0.31999999 0.255 -1.249 25262960
0.31900001 0.255 -1.249 25131125
0.31799999 0.255 -1.249 25197945
0.317 0.255 -1.2539999 25263235
0.31600001 0.255 -1.2539999 25261196
0.315 0.255 -1.249 25189769
0.31400001 0.255 -1.249 25324421
0.31299999 0.255 -1.249 25459584
0.31200001 0.255 -1.249 25526394
0.31099999 0.255 -0 25592702
0.31 0.255 -0 25393025
0.30899999 0.255 -1.1160001 25193095
0.308 0.255 -1.1160001 24934284
0.30700001 0.255 -1.1160001 24746375
0.30599999 0.255 -1.1160001 25465985
0.20100001 0.255 -1.2539999 23751265
0.2 0.255 -1.2539999 24607595
0.17900001 0.255 -1.321 25259903
0.178 0.255 -1.321 24275309
0.177 0.255 -1.321 23222382
0.176 0.255 -1.321 23289455
0.175 0.255 -1.326 23358066
0.17399999 0.255 -1.326 23687284
0.17299999 0.255 -1.336 24081782
0.17200001 0.255 -1.336 24476280
0.171 0.255 -1.342 24934517
0.17 0.255 -1.342 24802161
0.169 0.255 -1.352 24608364
0.168 0.255 -1.352 24409190
0.167 0.255 -1.363 24275818
0.16599999 0.255 -1.363 24079726
0.16500001 0.255 -1.358 23883628
0.164 0.255 -1.358 24209258
0.117 0.255 -1.074 27366801
0.116 0.255 -1.074 25263486
0.115 0.255 -1.061 23162480
0.030999999 0.255 -0 17570431
0.029999999 0.255 -0 17702014
-0.59799999 0.255 -0.639 17971489
0.368 0.25400001 -0.90499997 24408942
0.36700001 0.25400001 -0 24210539
0.366 0.25400001 -0 24472936
0.36500001 0.25400001 -0 24670058
0.36399999 0.25400001 -0 24670828
0.32300001 0.25400001 -1.249 24540014
0.322 0.25400001 -1.249 24803680
0.32100001 0.25400001 -1.249 24999531
0.31999999 0.25400001 -1.249 25000823
0.31900001 0.25400001 -1.249 24936056
0.31799999 0.25400001 -1.249 25133177
0.317 0.25400001 -1.249 25329534
0.31600001 0.25400001 -1.249 25198724
0.315 0.25400001 -1.24 24997507
0.31400001 0.25400001 -1.24 25321089
0.31299999 0.25400001 -1.24 25589631
0.31200001 0.25400001 -1.24 25789566
0.31099999 0.25400001 -1.113 25921662
0.31 0.25400001 -1.113 25659519
0.30899999 0.25400001 -1.113 25392513
0.308 0.25400001 -1.113 24535684
0.30700001 0.25400001 -1.113 23689858
0.30599999 0.25400001 -1.113 24808575
0.30500001 0.25400001 -1.1160001 25922953
0.30399999 0.25400001 -1.1160001 26053266
0.20299999 0.25400001 -0 25790586
0.17900001 0.25400001 -1.321 25394048
0.178 0.25400001 -1.321 24540280
0.177 0.25400001 -1.321 23620467
0.176 0.25400001 -1.321 23750510
0.175 0.25400001 -1.321 23816562
0.17399999 0.25400001 -1.321 23492981
0.17299999 0.25400001 -1.331 23097717
0.17200001 0.25400001 -1.331 24213110
0.171 0.25400001 -1.336 25261173
0.17 0.25400001 -1.336 24866676
0.169 0.25400001 -1.347 24408688
0.168 0.25400001 -1.347 24215405
0.167 0.25400001 -1.363 24014704
0.16599999 0.25400001 -1.363 23550324
0.16500001 0.25400001 -1.358 23029618
0.164 0.25400001 -1.358 23752560
0.115 0.25400001 -1.074 23028593
0.114 0.25400001 -1.074 22041952
0.113 0.25400001 -1.064 20989025
0.064999998 0.25400001 -0 31184591
0.064000003 0.25400001 -0 31380943
0.063000001 0.25400001 -0 31512268
0.061999999 0.25400001 -0 31774665
0.061000001 0.25400001 -0 32037328
0.059999999 0.25400001 -0 32302039
0.059 0.25400001 -0 32495057
0.057999998 0.25400001 -0 31514315
0.057 0.25400001 -0 30525647
0.056000002 0.25400001 -0 29415124
0.36700001 0.25299999 -0 23619953
0.366 0.25299999 -0 24013937
0.36500001 0.25299999 -0 24408178
0.36399999 0.25299999 -0 24538483
0.32300001 0.25299999 -1.249 24738152
0.322 0.25299999 -1.249 24867920
0.32100001 0.25299999 -1.249 24995943
0.31999999 0.25299999 -1.249 24998782
0.31900001 0.25299999 -1.249 25003643
0.31799999 0.25299999 -1.249 25330040
0.317 0.25299999 -1.249 25656954
0.31600001 0.25299999 -1.249 25263484
0.315 0.25299999 -1.24 24935805
0.31400001 0.25299999 -1.24 25393277
0.31299999 0.25299999 -1.24 25918847
0.31200001 0.25299999 -1.24 25986433
0.31099999 0.25299999 -1.113 26120063
0.31 0.25299999 -1.113 26053500
0.30899999 0.25299999 -1.113 26050940
0.308 0.25299999 -1.113 25260668
0.30700001 0.25299999 -1.113 24535677
0.30599999 0.25299999 -1.113 25198205
0.30500001 0.25299999 -1.1160001 25922947
0.30399999 0.25299999 -1.1160001 26249864
0.30000001 0.25299999 -1.12 25921935
0.20299999 0.25299999 -0 25661569
0.17900001 0.25299999 -1.321 25265537
0.178 0.25299999 -1.321 24411522
0.177 0.25299999 -1.321 23492472
0.176 0.25299999 -1.321 23421805
0.175 0.25299999 -1.321 23353970
0.17399999 0.25299999 -1.321 23356022
0.17299999 0.25299999 -1.331 23354997
0.17200001 0.25299999 -1.331 24079731
0.171 0.25299999 -1.336 24802165
0.17 0.25299999 -1.336 24604534
0.169 0.25299999 -1.347 24403061
0.168 0.25299999 -1.347 24604531
0.167 0.25299999 -1.363 24868982
0.16599999 0.25299999 -1.363 24145785
0.16500001 0.25299999 -1.358 23487607
0.164 0.25299999 -1.358 23950197
0.114 0.25299999 -1.074 22499423
0.113 0.25299999 -1.064 21707870
0.112 0.25299999 -1.064 25057629
0.064999998 0.25299999 -0 31579603
0.064000003 0.25299999 -0 31381714
0.063000001 0.25299999 -0 31184327
0.061999999 0.25299999 -0 30200508
0.061000001 0.25299999 -0 29284037
0.059999999 0.25299999 -0 28295886
0.059 0.25299999 -0 27312329
0.057999998 0.25299999 -0 25468099
0.057 0.25299999 -0 23696326
0.056000002 0.25299999 -0 23164361
0.36700001 0.252 -0 23030642
0.366 0.252 -0 23619953
0.36500001 0.252 -0 24145268
0.36399999 0.252 -0 24406647
0.32300001 0.252 -1.245 24935277
0.322 0.252 -1.245 24933727
0.32100001 0.252 -1.245 24932462
0.31999999 0.252 -1.245 24994942
0.31900001 0.252 -1.249 25066107
0.31799999 0.252 -1.249 25526136
0.317 0.252 -1.245 25984122
0.31600001 0.252 -1.245 25393533
0.315 0.252 -1.2359999 24803713
0.31400001 0.252 -1.2359999 25528453
0.31299999 0.252 -1.232 26248579
0.31200001 0.252 -1.232 26248578
0.31099999 0.252 -1.223 26251393
0.31 0.252 -1.223 26514305
0.30899999 0.252 -1.219 26708095
0.308 0.252 -1.219 26050941
0.30700001 0.252 -1.223 25328254
0.30599999 0.252 -1.223 25656191
0.30500001 0.252 -1.227 25919873
0.30399999 0.252 -1.227 26510980
0.303 0.252 -1.227 27036551
0.30199999 0.252 -1.227 26777226
0.20299999 0.252 -0 25528701
0.177 0.252 -1.321 23359608
0.176 0.252 -1.321 23090294
0.175 0.252 -1.321 22828660
0.17399999 0.252 -1.321 23222131
0.17299999 0.252 -1.326 23553137
0.17200001 0.252 -1.326 23948144
0.171 0.252 -1.331 24277621
0.17 0.252 -1.331 24346491
0.169 0.252 -1.336 24408696
0.168 0.252 -1.336 25062006
0.167 0.252 -1.363 25656191
0.16599999 0.252 -1.363 24806793
0.16500001 0.252 -1.368 23884158
0.164 0.252 -1.368 24214132
0.163 0.252 -1.3789999 24541046
0.162 0.252 -1.3789999 23682681
0.161 0.252 -1.3789999 22764147
0.16 0.252 -1.3789999 23680622
0.113 0.252 -1.068 22365015
0.112 0.252 -1.068 25248088
0.111 0.252 -1.064 28152204
0.11 0.252 -1.064 27641792
0.068999998 0.252 -0 31971796
0.068000004 0.252 -0 31778522
0.067000002 0.252 -0 31513810
0.066 0.252 -0 31711177
0.064999998 0.252 -0 31904715
0.064000003 0.252 -0 31382222
0.063000001 0.252 -0 30785736
0.061999999 0.252 -0 28624579
0.061000001 0.252 -0 26450365
0.059999999 0.252 -0 24284599
0.059 0.252 -0.59500003 22046640
0.36700001 0.25099999 -0 23883636
0.366 0.25099999 -0 24080241
0.36500001 0.25099999 -0 24343158
0.36399999 0.25099999 -0 24473979
0.32300001 0.25099999 -1.245 25001330
0.322 0.25099999 -1.245 25263982
0.32100001 0.25099999 -1.245 25591158
0.31900001 0.25099999 -1.249 25067131
0.31799999 0.25099999 -1.249 25066360
0.317 0.25099999 -1.245 25131387
0.31600001 0.25099999 -1.245 25064061
0.315 0.25099999 -1.2359999 25061253
0.31400001 0.25099999 -1.2359999 25524109
0.31299999 0.25099999 -1.232 26053000
0.31200001 0.25099999 -1.232 26120066
0.31099999 0.25099999 -1.223 26253700
0.31 0.25099999 -1.223 26382725
0.30899999 0.25099999 -1.219 26512257
0.308 0.25099999 -1.219 26052989
0.30700001 0.25099999 -1.223 25594495
0.30599999 0.25099999 -1.223 25723264
0.30500001 0.25099999 -1.227 25916544
0.30399999 0.25099999 -1.227 26115968
0.303 0.25099999 -1.227 26314375
0.30199999 0.25099999 -1.227 26381197
0.301 0.25099999 -1.127 26381203
0.20299999 0.25099999 -0 25329529
0.177 0.25099999 -1.321 24605305
0.17299999 0.25099999 -1.326 23818350
0.17200001 0.25099999 -1.326 23883117
0.171 0.25099999 -1.331 24013942
0.17 0.25099999 -1.331 24935295
0.169 0.25099999 -1.336 25854588
0.168 0.25099999 -1.336 25131640
0.167 0.25099999 -1.363 24478601
0.16599999 0.25099999 -1.363 24279705
0.16500001 0.25099999 -1.368 24141958
0.164 0.25099999 -1.368 24408434
0.163 0.25099999 -1.3789999 24740982
0.162 0.25099999 -1.3789999 24079994
0.161 0.25099999 -1.3789999 23484527
0.16 0.25099999 -1.3789999 24077155
0.113 0.25099999 -1.068 21969744
0.112 0.25099999 -1.068 24858450
0.111 0.25099999 -1.064 27694992
0.11 0.25099999 -1.064 28292813
0.068999998 0.25099999 -0 30727118
0.068000004 0.25099999 -0 29479641
0.067000002 0.25099999 -0 28300236
0.066 0.25099999 -0 26785726
0.064999998 0.25099999 -0 25278148
0.064000003 0.25099999 -0 24546249
0.063000001 0.25099999 -0 23825610
0.061999999 0.25099999 -0 22766538
0.061000001 0.25099999 -0 21641909
0.059999999 0.25099999 -0 20526751
0.36700001 0.25 -0 24670315
0.366 0.25 -0 24605280
0.32499999 0.25 -1.245 25064300
0.324 0.25 -1.245 25065079
0.32300001 0.25 -1.245 25067115
0.31900001 0.25 -1.249 25001596
0.31799999 0.25 -1.249 24672120
0.317 0.25 -1.245 24278646
0.31600001 0.25 -1.245 24801396
0.315 0.25 -1.232 25259645
0.31400001 0.25 -1.232 25518727
0.31299999 0.25 -1.223 25786757
0.31200001 0.25 -1.223 26055556
0.31099999 0.25 -1.219 26251400
0.31 0.25 -1.219 26250125
0.30899999 0.25 -1.223 26250631
0.308 0.25 -1.223 26054274
0.30700001 0.25 -1.223 25856903
0.30599999 0.25 -1.223 25856395
0.30500001 0.25 -1.227 25853832
0.30399999 0.25 -1.227 25722244
0.303 0.25 -1.227 25592712
0.30199999 0.25 -1.227 25920653
0.301 0.25 -1.227 26249103
0.30000001 0.25 -1.227 26315154
0.29899999 0.25 -1.227 26382223
0.29800001 0.25 -1.227 26119564
0.20299999 0.25 -0 25063033
0.20200001 0.25 -0 25984879
0.18099999 0.25 -1.316 25919091
0.18000001 0.25 -1.316 25130098
0.17900001 0.25 -1.316 24276596
0.178 0.25 -1.316 25067382
0.17299999 0.25 -1.326 24013673
0.17200001 0.25 -1.326 23882607
0.171 0.25 -1.326 23752305
0.17 0.25 -1.326 25526387
0.169 0.25 -1.331 27230325
0.168 0.25 -1.331 25262456
0.167 0.25 -1.363 23229566
